# .PCD v.7 - Point Cloud Data file format
VERSION .7
FIELDS x y z
SIZE 4 4 4
TYPE F F F
COUNT 1 1 1
WIDTH 1620
HEIGHT 1
VIEWPOINT 0 0 0 1 0 0 0
POINTS 1620
DATA ascii
-0.565748 -0.107328 -1.420180
-0.521524 -0.106230 -1.402175
-0.387619 -0.107186 -1.405473
-0.371258 -0.107691 -1.414875
-0.138376 -0.085505 -1.117810
0.021923 -0.082032 -1.072817
0.171657 -0.107474 -1.417893
0.206837 -0.108181 -1.429424
0.347835 -0.107918 -1.426826
0.386517 -0.108880 -1.434530
0.461666 -0.109361 -1.437849
0.537625 -0.109407 -1.440737
0.604469 -0.108866 -1.430397
0.641617 -0.108894 -1.437423
0.783155 -0.109149 -1.429905
-0.788909 -0.109067 -1.409532
-0.692063 -0.108577 -1.411399
-0.668381 -0.108751 -1.409807
-0.644804 -0.108955 -1.411885
-0.564308 -0.109474 -1.413271
-0.496439 -0.108097 -1.410366
-0.371356 -0.108408 -1.406171
-0.339660 -0.108860 -1.406168
-0.325037 -0.108436 -1.408639
-0.291933 -0.107920 -1.409254
-0.164783 -0.086762 -1.125695
-0.002195 -0.083355 -1.079204
0.055139 -0.082393 -1.065851
0.217910 -0.110076 -1.427064
0.253448 -0.110096 -1.427674
0.284917 -0.110633 -1.429245
0.395007 -0.110146 -1.430875
0.431929 -0.110657 -1.433292
0.435991 -0.110472 -1.434384
0.547605 -0.111018 -1.437235
0.578541 -0.110384 -1.430500
0.711114 -0.109678 -1.428743
0.713139 -0.109101 -1.425911
0.747150 -0.108851 -1.422751
-0.769230 -0.110302 -1.411591
-0.740650 -0.110642 -1.418086
-0.661054 -0.110385 -1.406605
-0.626374 -0.109330 -1.408042
-0.596849 -0.110333 -1.413239
-0.520072 -0.109674 -1.412515
-0.485702 -0.110123 -1.406036
-0.467750 -0.110024 -1.408588
-0.451662 -0.109938 -1.406045
-0.419643 -0.110004 -1.411056
-0.359672 -0.110358 -1.413680
-0.311340 -0.109972 -1.407084
-0.276203 -0.108791 -1.402864
-0.191380 -0.087771 -1.131667
-0.154441 -0.087856 -1.124309
-0.128365 -0.087538 -1.116889
-0.067553 -0.086015 -1.101743
-0.027141 -0.084304 -1.083220
-0.018101 -0.084904 -1.083695
0.006366 -0.083710 -1.078294
0.030883 -0.083081 -1.071282
0.063110 -0.083311 -1.065988
0.184813 -0.110401 -1.420077
0.321367 -0.110936 -1.429004
0.326965 -0.111517 -1.423899
0.368949 -0.111565 -1.426524
0.512693 -0.111739 -1.432784
0.622418 -0.111746 -1.430267
0.658735 -0.112305 -1.433442
0.686901 -0.111000 -1.420591
-0.801776 -0.111304 -1.408534
-0.707887 -0.111461 -1.415414
-0.690082 -0.110742 -1.410280
-0.577907 -0.111069 -1.407341
-0.513082 -0.110055 -1.401617
-0.468439 -0.110423 -1.403073
-0.408287 -0.111146 -1.405331
-0.180689 -0.089010 -1.132376
0.263996 -0.112328 -1.423018
0.296115 -0.111916 -1.425883
0.308118 -0.112649 -1.422210
0.409188 -0.112958 -1.426967
0.474937 -0.113020 -1.431473
0.485102 -0.113184 -1.427004
0.527981 -0.113663 -1.433081
0.555236 -0.112991 -1.428644
0.589319 -0.113138 -1.430315
0.695085 -0.112441 -1.420691
0.729398 -0.111465 -1.422009
0.802128 -0.112240 -1.430674
0.807087 -0.112436 -1.432414
-0.726009 -0.112762 -1.412991
-0.674070 -0.112626 -1.402784
-0.550385 -0.113184 -1.410926
-0.528530 -0.111209 -1.399552
-0.438534 -0.111635 -1.405377
-0.330367 -0.111935 -1.400970
-0.118547 -0.089869 -1.118995
-0.007922 -0.086994 -1.083290
0.016735 -0.086517 -1.077276
0.040536 -0.085102 -1.070215
0.197501 -0.113036 -1.423559
0.231790 -0.113227 -1.425399
0.338458 -0.112779 -1.418237
0.417641 -0.113429 -1.425389
0.531073 -0.114495 -1.430153
0.661391 -0.113417 -1.424208
0.774407 -0.113162 -1.420582
-0.795604 -0.114152 -1.405146
-0.766579 -0.114104 -1.402976
-0.761909 -0.114714 -1.412452
-0.708448 -0.113782 -1.410766
-0.642341 -0.112918 -1.404249
-0.630686 -0.114000 -1.401814
-0.617818 -0.113468 -1.407128
-0.568636 -0.114140 -1.404835
-0.503514 -0.113891 -1.405895
-0.428189 -0.114276 -1.405080
-0.398017 -0.113440 -1.400186
-0.362677 -0.113636 -1.407110
-0.298830 -0.113077 -1.405337
-0.171116 -0.091336 -1.131050
-0.144607 -0.090270 -1.122830
0.024973 -0.086947 -1.075667
0.049514 -0.086705 -1.069267
0.164607 -0.113772 -1.412585
0.173775 -0.114119 -1.411948
0.206962 -0.114664 -1.422275
0.244895 -0.114412 -1.422298
0.277587 -0.115301 -1.421462
0.350721 -0.114321 -1.420692
0.378527 -0.115538 -1.431054
0.460685 -0.115432 -1.425910
0.500539 -0.115814 -1.425410
0.562362 -0.115289 -1.423038
0.596301 -0.114415 -1.424476
0.636361 -0.114985 -1.431063
0.646761 -0.115770 -1.427630
-0.743923 -0.114993 -1.410413
-0.609988 -0.113827 -1.397903
-0.602691 -0.114871 -1.406754
-0.517887 -0.113687 -1.393453
-0.490087 -0.114674 -1.400995
-0.440074 -0.114720 -1.395696
-0.382352 -0.114980 -1.397790
-0.347989 -0.114271 -1.402701
-0.317114 -0.115098 -1.400002
-0.300791 -0.114381 -1.399497
-0.284365 -0.114236 -1.401570
-0.160677 -0.092656 -1.129306
-0.134341 -0.091489 -1.121415
-0.073202 -0.090299 -1.102362
0.319725 -0.116478 -1.419789
0.389425 -0.115870 -1.421733
0.608877 -0.115890 -1.421711
0.673698 -0.116189 -1.417296
0.716414 -0.116236 -1.415760
0.746909 -0.115565 -1.412222
0.792295 -0.116254 -1.424229
-0.732143 -0.115948 -1.406568
-0.641467 -0.115452 -1.395282
-0.555612 -0.117016 -1.405364
-0.503818 -0.115596 -1.392700
-0.458776 -0.115468 -1.398581
-0.187726 -0.094451 -1.137119
-0.023321 -0.089564 -1.087687
0.001850 -0.089148 -1.082493
0.059578 -0.088736 -1.069128
0.254084 -0.116629 -1.417698
0.262873 -0.117544 -1.414776
0.290216 -0.116866 -1.420218
0.397835 -0.117563 -1.418305
0.443295 -0.118259 -1.428297
0.511809 -0.118096 -1.425118
0.545163 -0.117381 -1.423339
0.582212 -0.118007 -1.422187
0.686137 -0.117551 -1.416838
0.715491 -0.116765 -1.420359
0.758339 -0.117767 -1.418356
0.790349 -0.117387 -1.426577
-0.801259 -0.118350 -1.404616
-0.767439 -0.117189 -1.404806
-0.678606 -0.116897 -1.399598
-0.589337 -0.117514 -1.402345
-0.573274 -0.117643 -1.397730
-0.461748 -0.116818 -1.392323
-0.417366 -0.117937 -1.401492
-0.401144 -0.116798 -1.397661
-0.272922 -0.117146 -1.395393
-0.150732 -0.094569 -1.128067
-0.124504 -0.093908 -1.121750
-0.063021 -0.092554 -1.104662
-0.013161 -0.091457 -1.087127
0.011081 -0.090395 -1.081165
0.035628 -0.090013 -1.074376
0.188361 -0.117694 -1.411525
0.223522 -0.118331 -1.419248
0.333287 -0.118987 -1.413792
0.367274 -0.118878 -1.419674
0.371382 -0.118364 -1.413074
0.440323 -0.119292 -1.426870
0.547319 -0.118528 -1.416496
0.626162 -0.118519 -1.422891
0.654243 -0.118395 -1.419059
-0.773083 -0.118173 -1.397088
-0.712873 -0.118448 -1.405022
-0.703471 -0.119297 -1.412078
-0.368357 -0.118644 -1.396978
-0.338121 -0.118169 -1.395433
-0.320991 -0.117731 -1.392208
-0.177478 -0.096343 -1.136437
0.044188 -0.090564 -1.073211
0.069859 -0.090324 -1.069149
0.156025 -0.118574 -1.406353
0.234811 -0.119296 -1.416662
0.301715 -0.119969 -1.416453
0.309927 -0.119843 -1.413520
0.340310 -0.119390 -1.410223
0.409635 -0.119376 -1.415561
0.481321 -0.121446 -1.433516
0.481517 -0.119780 -1.418905
0.484347 -0.119361 -1.415859
0.521748 -0.120638 -1.422622
0.586685 -0.119387 -1.418217
0.655579 -0.119515 -1.411088
0.694083 -0.119986 -1.415987
0.730544 -0.119471 -1.412303
0.764158 -0.119194 -1.411663
-0.749140 -0.120989 -1.405026
-0.666881 -0.118820 -1.391463
-0.606408 -0.119819 -1.398409
-0.544775 -0.119478 -1.397998
-0.523993 -0.118667 -1.388991
-0.484449 -0.119627 -1.395945
-0.477655 -0.119253 -1.389722
-0.435464 -0.120308 -1.397285
-0.387190 -0.118942 -1.392734
-0.261128 -0.119685 -1.392340
-0.193712 -0.098387 -1.143374
-0.166928 -0.097420 -1.134644
-0.140441 -0.096174 -1.126447
-0.114435 -0.095883 -1.122316
-0.003898 -0.093166 -1.086815
0.020621 -0.092358 -1.079941
0.166564 -0.120441 -1.405109
0.245421 -0.120474 -1.412248
0.355772 -0.120999 -1.410323
0.425801 -0.121252 -1.415982
0.456795 -0.122338 -1.424285
0.531667 -0.121134 -1.416796
0.597755 -0.121664 -1.414720
0.636783 -0.120994 -1.421324
-0.766401 -0.120645 -1.395115
-0.736269 -0.121562 -1.400843
-0.642237 -0.121255 -1.394129
-0.619396 -0.120565 -1.389372
-0.560621 -0.120861 -1.397626
-0.449846 -0.120041 -1.387669
-0.419717 -0.120952 -1.395290
-0.356958 -0.120864 -1.397405
-0.342373 -0.120518 -1.391763
-0.293339 -0.120770 -1.398280
-0.278745 -0.121073 -1.393427
-0.028251 -0.094570 -1.094353
-0.019013 -0.094605 -1.091707
0.029849 -0.092968 -1.078607
0.213674 -0.121819 -1.411940
0.281468 -0.122489 -1.414413
0.287383 -0.122675 -1.412449
0.388056 -0.122200 -1.410319
0.466669 -0.122668 -1.414793
0.564023 -0.121937 -1.414247
0.605728 -0.122229 -1.414183
0.736036 -0.121333 -1.407340
0.744440 -0.121268 -1.401098
0.786246 -0.122039 -1.413167
-0.717860 -0.122481 -1.397374
-0.652570 -0.121402 -1.385123
-0.607058 -0.121560 -1.386858
-0.435946 -0.122213 -1.388372
-0.373718 -0.121220 -1.388599
-0.311358 -0.122377 -1.392033
-0.183552 -0.100478 -1.142702
-0.156853 -0.099286 -1.132919
-0.130582 -0.098569 -1.125401
-0.068854 -0.097473 -1.106922
0.005844 -0.094767 -1.085552
0.054937 -0.093506 -1.073110
0.063039 -0.093967 -1.073489
0.178929 -0.122223 -1.403144
0.256007 -0.123208 -1.408887
0.392930 -0.123248 -1.407830
0.470243 -0.123434 -1.409096
0.505710 -0.123935 -1.414571
0.541086 -0.123938 -1.409576
0.573058 -0.122981 -1.411304
0.649632 -0.123539 -1.413870
0.684261 -0.123640 -1.411516
0.715210 -0.123453 -1.411390
-0.755512 -0.123750 -1.399720
-0.596764 -0.123274 -1.397314
-0.576316 -0.122810 -1.392401
-0.530588 -0.123404 -1.387480
-0.496947 -0.122644 -1.378553
-0.407979 -0.123120 -1.391630
-0.391108 -0.122466 -1.387570
-0.297979 -0.123570 -1.392298
-0.265280 -0.123108 -1.389255
-0.120380 -0.099818 -1.124318
-0.033953 -0.097035 -1.100016
0.039587 -0.095477 -1.077312
0.157023 -0.123774 -1.399854
0.189158 -0.123584 -1.399271
0.225241 -0.124998 -1.410786
0.235575 -0.125076 -1.405985
0.269389 -0.125038 -1.406544
0.326083 -0.124196 -1.409783
0.362817 -0.123901 -1.406007
0.439303 -0.125471 -1.417727
0.444708 -0.125162 -1.417020
0.508590 -0.124489 -1.412500
0.624210 -0.125631 -1.413812
0.647193 -0.124097 -1.404257
0.687679 -0.124456 -1.411659
0.715386 -0.123951 -1.405203
-0.673374 -0.124822 -1.390499
-0.555704 -0.124922 -1.394653
-0.468476 -0.123694 -1.388046
-0.456587 -0.124234 -1.382400
-0.329149 -0.123916 -1.386005
-0.146880 -0.101616 -1.131055
-0.059060 -0.099059 -1.109308
-0.009162 -0.097448 -1.091357
0.015180 -0.096686 -1.084424
0.048593 -0.096707 -1.076309
0.203515 -0.125303 -1.400898
0.300402 -0.126096 -1.409190
0.331389 -0.125035 -1.404259
0.409613 -0.125510 -1.406673
0.416496 -0.126441 -1.407845
0.487740 -0.126453 -1.406599
0.554198 -0.125598 -1.405792
0.584217 -0.126213 -1.408317
0.702520 -0.126510 -1.407823
0.757277 -0.125012 -1.400766
-0.784619 -0.126099 -1.395640
-0.765053 -0.125594 -1.388658
-0.741481 -0.126671 -1.397040
-0.661841 -0.125828 -1.383296
-0.644313 -0.124911 -1.386539
-0.596312 -0.125880 -1.388013
-0.565657 -0.125481 -1.390020
-0.522612 -0.124678 -1.384221
-0.494411 -0.124638 -1.375097
-0.440656 -0.125338 -1.379710
-0.405905 -0.125374 -1.384376
-0.379333 -0.125436 -1.381232
-0.360844 -0.125867 -1.389724
-0.316478 -0.125152 -1.385097
-0.285107 -0.126460 -1.390591
-0.173700 -0.103006 -1.140602
-0.136496 -0.102543 -1.129285
0.000483 -0.098277 -1.089943
0.025020 -0.097797 -1.083372
0.246642 -0.127295 -1.403242
0.312528 -0.126808 -1.405513
0.345679 -0.126473 -1.402294
0.376181 -0.126354 -1.402474
0.524991 -0.126256 -1.403623
0.633666 -0.127546 -1.409720
0.664046 -0.126365 -1.404537
0.724648 -0.126117 -1.401168
0.733209 -0.125874 -1.390833
-0.754321 -0.126697 -1.390424
-0.722868 -0.127904 -1.392296
-0.623758 -0.126414 -1.384982
-0.554870 -0.127329 -1.387797
-0.524467 -0.126229 -1.381547
-0.487328 -0.125776 -1.378404
-0.271386 -0.126582 -1.385302
-0.162953 -0.103789 -1.138349
-0.110366 -0.102217 -1.123028
-0.074784 -0.101710 -1.112063
-0.024297 -0.100070 -1.096746
0.009854 -0.100023 -1.088468
0.171430 -0.128388 -1.398482
0.180496 -0.128138 -1.394900
0.216275 -0.129148 -1.406384
0.281314 -0.128287 -1.405496
0.355424 -0.128148 -1.399904
0.458707 -0.129500 -1.410640
0.460941 -0.127924 -1.402513
0.495479 -0.128343 -1.402549
0.528233 -0.128793 -1.409962
0.567259 -0.128852 -1.403145
0.598431 -0.128422 -1.406862
0.637722 -0.128021 -1.401224
0.704756 -0.128654 -1.402002
0.775203 -0.127273 -1.399002
-0.642551 -0.127697 -1.379123
-0.617604 -0.128034 -1.380699
-0.534246 -0.127820 -1.382314
-0.472811 -0.127005 -1.380371
-0.430033 -0.128167 -1.388691
-0.351987 -0.128318 -1.387993
-0.333642 -0.127187 -1.380820
-0.190598 -0.105733 -1.148234
-0.126495 -0.104709 -1.127775
-0.039376 -0.102407 -1.105127
-0.014466 -0.101381 -1.095959
0.034488 -0.099658 -1.081920
0.058688 -0.099065 -1.076508
0.293409 -0.130150 -1.404333
0.324049 -0.129335 -1.399972
0.387394 -0.129048 -1.401033
0.570157 -0.128845 -1.401160
0.610762 -0.129496 -1.404818
0.680464 -0.129414 -1.408153
0.744239 -0.128696 -1.395469
-0.597101 -0.128971 -1.378751
-0.586650 -0.128813 -1.385490
-0.401186 -0.128675 -1.382064
-0.365095 -0.128492 -1.379719
-0.305931 -0.129221 -1.385878
-0.260029 -0.129716 -1.381890
-0.180031 -0.107527 -1.145957
-0.153091 -0.106093 -1.136250
-0.064582 -0.104290 -1.111796
0.043526 -0.100958 -1.080446
0.147963 -0.129452 -1.392895
0.226193 -0.130608 -1.401488
0.263880 -0.131263 -1.400888
0.402247 -0.130581 -1.398189
0.437637 -0.131016 -1.409503
0.511051 -0.130998 -1.400547
0.643498 -0.129773 -1.395734
0.718456 -0.130766 -1.396625
-0.790983 -0.130298 -1.383362
-0.719101 -0.131632 -1.388934
-0.570964 -0.129969 -1.382109
-0.412364 -0.130515 -1.378239
-0.385762 -0.130007 -1.376363
-0.292515 -0.130217 -1.384806
-0.142488 -0.106941 -1.134026
-0.116270 -0.106080 -1.125177
-0.080610 -0.105747 -1.116585
-0.055052 -0.105190 -1.112803
-0.004630 -0.103413 -1.094984
0.020173 -0.102577 -1.087787
0.068822 -0.101052 -1.076922
0.162319 -0.130986 -1.392497
0.194268 -0.130999 -1.394393
0.238136 -0.131866 -1.396584
0.266547 -0.131356 -1.398000
0.304029 -0.132084 -1.400991
0.316350 -0.132083 -1.395518
0.333961 -0.131888 -1.395644
0.367834 -0.131334 -1.395658
0.411459 -0.132075 -1.396523
0.447373 -0.132217 -1.405929
0.549089 -0.131596 -1.398600
0.626252 -0.132682 -1.402249
0.702981 -0.132175 -1.403107
-0.729062 -0.132686 -1.390083
-0.666987 -0.131765 -1.381650
-0.648069 -0.131491 -1.375277
-0.631738 -0.131650 -1.378858
-0.619977 -0.131431 -1.376554
-0.567786 -0.131735 -1.375467
-0.538589 -0.131833 -1.375686
-0.530141 -0.131679 -1.377614
-0.504685 -0.130555 -1.370528
-0.477983 -0.131299 -1.374004
-0.465177 -0.131060 -1.377111
-0.445697 -0.131428 -1.372579
-0.434759 -0.131321 -1.381672
-0.339508 -0.131646 -1.377279
-0.323327 -0.130858 -1.377416
-0.196751 -0.109834 -1.154643
-0.169413 -0.108705 -1.143647
-0.106221 -0.106831 -1.124667
-0.029801 -0.104569 -1.101785
0.004374 -0.104240 -1.093032
0.029071 -0.103817 -1.086643
0.053306 -0.102890 -1.080113
0.380987 -0.133197 -1.393889
0.485092 -0.132824 -1.398619
0.485290 -0.132935 -1.393781
0.525146 -0.132940 -1.392882
0.551810 -0.132500 -1.396017
0.630112 -0.133384 -1.397037
0.696214 -0.133295 -1.397684
0.762699 -0.131976 -1.391530
-0.758667 -0.132542 -1.378889
-0.602809 -0.132682 -1.372301
-0.591968 -0.133217 -1.378077
-0.560203 -0.132417 -1.380253
-0.496979 -0.132166 -1.373872
-0.372858 -0.132416 -1.371567
-0.311169 -0.132781 -1.378210
-0.265250 -0.132642 -1.374901
-0.132499 -0.109223 -1.132389
-0.044862 -0.107294 -1.110173
-0.020026 -0.105871 -1.100895
0.062778 -0.104555 -1.080987
0.208923 -0.133628 -1.395045
0.347723 -0.134046 -1.394057
0.357318 -0.134451 -1.391315
0.424244 -0.135090 -1.398871
0.526359 -0.135030 -1.398275
0.562827 -0.134737 -1.394447
0.592367 -0.134294 -1.400944
0.601582 -0.134845 -1.397850
0.734694 -0.133460 -1.391866
-0.716728 -0.135005 -1.388369
-0.666843 -0.134522 -1.376178
-0.436258 -0.133252 -1.374392
-0.359221 -0.134380 -1.381776
-0.186185 -0.111888 -1.152254
-0.159264 -0.110440 -1.141346
-0.122212 -0.109765 -1.129186
-0.070363 -0.108609 -1.116142
-0.035468 -0.108110 -1.106899
0.039065 -0.105907 -1.085063
0.176514 -0.134741 -1.389484
0.184546 -0.134217 -1.387463
0.254412 -0.135891 -1.395927
0.287840 -0.136299 -1.398902
0.325242 -0.134761 -1.390607
0.395966 -0.135845 -1.392423
0.400762 -0.135620 -1.389139
0.462301 -0.136019 -1.398180
0.465419 -0.134757 -1.392741
0.496127 -0.135436 -1.389990
0.639929 -0.135015 -1.391225
0.678278 -0.135606 -1.397162
0.716169 -0.135112 -1.392047
0.740678 -0.134117 -1.386109
0.775827 -0.134941 -1.392314
-0.773176 -0.134287 -1.371741
-0.636018 -0.134558 -1.371438
-0.529571 -0.135239 -1.372644
-0.499860 -0.134922 -1.367518
-0.451000 -0.134897 -1.366491
-0.407512 -0.134696 -1.375603
-0.392528 -0.135373 -1.372885
-0.361058 -0.135089 -1.373064
-0.300677 -0.136019 -1.378808
-0.282490 -0.135092 -1.381200
-0.175608 -0.113357 -1.148897
-0.148723 -0.111634 -1.138351
-0.096192 -0.110932 -1.127021
-0.060593 -0.109950 -1.116108
-0.010011 -0.107991 -1.100235
0.014670 -0.106801 -1.092041
0.163991 -0.136552 -1.384847
0.260826 -0.136001 -1.391257
0.297438 -0.137407 -1.397658
0.442688 -0.137523 -1.399183
0.510726 -0.136932 -1.390435
0.540888 -0.135914 -1.389459
0.578708 -0.136356 -1.395142
0.609761 -0.136518 -1.394045
0.657925 -0.136639 -1.386934
0.682359 -0.136241 -1.392707
0.753835 -0.135376 -1.384253
-0.592860 -0.136078 -1.369961
-0.544321 -0.136067 -1.369803
-0.471713 -0.136358 -1.371659
-0.422887 -0.136675 -1.374042
-0.377053 -0.135286 -1.366291
-0.329985 -0.135739 -1.371936
-0.315467 -0.135864 -1.370833
-0.284517 -0.136553 -1.376231
-0.086274 -0.111153 -1.121440
0.023908 -0.108546 -1.091174
0.048018 -0.107064 -1.083721
0.130827 -0.136629 -1.383124
0.155702 -0.137393 -1.386431
0.205693 -0.136975 -1.382758
0.231925 -0.137065 -1.388423
0.312843 -0.137302 -1.386512
0.369903 -0.137498 -1.388765
0.447181 -0.138265 -1.392797
0.618373 -0.137811 -1.391280
0.722404 -0.137839 -1.386713
-0.724268 -0.139561 -1.386503
-0.711285 -0.138160 -1.378366
-0.635214 -0.136734 -1.365982
-0.628757 -0.137939 -1.371255
-0.610264 -0.137628 -1.368229
-0.565653 -0.137325 -1.373927
-0.486651 -0.137482 -1.368368
-0.193380 -0.116490 -1.157774
-0.165647 -0.115186 -1.146782
-0.138672 -0.113896 -1.136719
-0.112208 -0.112621 -1.126654
-0.025413 -0.110477 -1.105626
-0.000451 -0.109592 -1.097988
0.057800 -0.108376 -1.083820
0.201597 -0.138823 -1.388131
0.275777 -0.139333 -1.389780
0.310331 -0.138866 -1.392372
0.337782 -0.138659 -1.388551
0.413321 -0.139547 -1.389823
0.479368 -0.138307 -1.388744
0.588434 -0.139012 -1.387998
0.663668 -0.139036 -1.387309
0.764870 -0.139058 -1.386059
-0.765202 -0.138061 -1.370490
-0.750864 -0.138871 -1.371369
-0.577440 -0.137870 -1.367743
-0.517322 -0.137751 -1.367944
-0.472617 -0.138184 -1.365772
-0.411969 -0.138470 -1.370511
-0.304297 -0.138991 -1.372090
-0.290069 -0.139044 -1.369828
-0.273458 -0.138929 -1.370577
-0.181764 -0.116978 -1.153841
-0.102168 -0.113493 -1.127655
-0.076268 -0.112755 -1.119764
-0.050371 -0.112425 -1.114226
-0.040991 -0.112825 -1.111703
0.008977 -0.111026 -1.096251
0.033880 -0.110361 -1.089827
0.177577 -0.139698 -1.381683
0.225952 -0.139696 -1.380101
0.243800 -0.140229 -1.388130
0.350314 -0.140160 -1.386339
0.379836 -0.139781 -1.387247
0.484682 -0.139341 -1.382409
0.529357 -0.140018 -1.384134
0.552546 -0.139606 -1.387784
0.596984 -0.141249 -1.393217
0.702582 -0.140221 -1.383319
0.706446 -0.139913 -1.388332
0.732221 -0.139601 -1.382736
-0.783511 -0.139071 -1.365429
-0.665610 -0.139686 -1.372201
-0.567012 -0.139072 -1.366480
-0.442787 -0.139266 -1.366136
-0.397484 -0.139904 -1.368560
-0.365404 -0.139167 -1.364590
-0.350030 -0.139529 -1.372278
-0.335445 -0.138888 -1.366878
-0.154885 -0.116264 -1.144166
-0.144425 -0.116784 -1.142158
-0.128445 -0.115319 -1.134478
-0.015508 -0.112382 -1.105546
0.068715 -0.110794 -1.084557
0.146052 -0.140359 -1.379805
0.188689 -0.140887 -1.381367
0.362157 -0.141353 -1.382938
0.394387 -0.140906 -1.383321
0.402233 -0.140523 -1.380776
0.432882 -0.142043 -1.392195
0.459550 -0.140971 -1.386446
0.468741 -0.141541 -1.383148
0.525649 -0.141247 -1.388688
0.637865 -0.141578 -1.388357
0.674547 -0.141869 -1.386447
0.741403 -0.141001 -1.380852
-0.768878 -0.141376 -1.365364
-0.687901 -0.140865 -1.362767
-0.663231 -0.141371 -1.369299
-0.597833 -0.140228 -1.364779
-0.537356 -0.140294 -1.366088
-0.504531 -0.139927 -1.363120
-0.490185 -0.141092 -1.362963
-0.430784 -0.140779 -1.368494
-0.354051 -0.140844 -1.365722
-0.118169 -0.116099 -1.131205
-0.092066 -0.116624 -1.126988
-0.065898 -0.115750 -1.120055
-0.005889 -0.113852 -1.103691
0.018674 -0.112721 -1.095382
0.042797 -0.111713 -1.088313
0.258942 -0.143130 -1.385568
0.263262 -0.142619 -1.380855
0.290327 -0.142929 -1.391007
0.332320 -0.141842 -1.383458
0.500431 -0.142344 -1.380009
0.544168 -0.142273 -1.381808
0.569109 -0.142448 -1.388353
0.611617 -0.142395 -1.383493
0.643281 -0.142009 -1.384455
0.711489 -0.142375 -1.378745
-0.629994 -0.141402 -1.364797
-0.581103 -0.141578 -1.361863
-0.522827 -0.142053 -1.362978
-0.459503 -0.141135 -1.360494
-0.445115 -0.141301 -1.358127
-0.309074 -0.141983 -1.364845
-0.260906 -0.141092 -1.362011
-0.199505 -0.120653 -1.161941
-0.171999 -0.120292 -1.151519
-0.082149 -0.117000 -1.124464
-0.056290 -0.116471 -1.118293
-0.030722 -0.115259 -1.110283
0.052965 -0.113352 -1.087620
0.136404 -0.143666 -1.378034
0.158430 -0.143284 -1.378874
0.341131 -0.143539 -1.381325
0.371395 -0.143450 -1.380343
0.440168 -0.144047 -1.387661
0.446230 -0.143920 -1.380112
0.513687 -0.143692 -1.381590
0.688150 -0.143132 -1.381640
0.756013 -0.142924 -1.380599
-0.757599 -0.143919 -1.367251
-0.643304 -0.142753 -1.363380
-0.617696 -0.143030 -1.363979
-0.553015 -0.143476 -1.364343
-0.540487 -0.142610 -1.360586
-0.387495 -0.142721 -1.363029
-0.370008 -0.142089 -1.358663
-0.324236 -0.142921 -1.363851
-0.161333 -0.121067 -1.149577
-0.108141 -0.118875 -1.130757
-0.046572 -0.117651 -1.116410
-0.021453 -0.116323 -1.110570
0.003492 -0.115362 -1.101189
0.028369 -0.114652 -1.094367
0.061933 -0.114447 -1.088022
0.168561 -0.144164 -1.375019
0.203110 -0.144443 -1.378807
0.209169 -0.143845 -1.373985
0.228801 -0.145163 -1.378463
0.249785 -0.144100 -1.375057
0.303733 -0.145206 -1.387401
0.308259 -0.144405 -1.382120
0.478836 -0.144554 -1.378611
0.586400 -0.144910 -1.387084
0.585656 -0.145097 -1.381788
0.656625 -0.144706 -1.382391
0.726036 -0.145045 -1.377423
-0.769803 -0.144577 -1.361258
-0.742464 -0.145497 -1.367559
-0.508915 -0.143901 -1.358364
-0.481905 -0.144486 -1.361412
-0.462646 -0.144073 -1.355739
-0.419600 -0.144239 -1.366447
-0.402377 -0.143912 -1.364290
-0.341844 -0.143807 -1.362811
-0.281631 -0.145127 -1.363790
-0.266806 -0.144136 -1.358251
-0.189132 -0.123012 -1.159170
-0.134692 -0.120487 -1.140711
-0.124267 -0.120823 -1.137251
0.037834 -0.115611 -1.093065
0.282323 -0.146551 -1.382182
0.354711 -0.146538 -1.378795
0.389306 -0.145513 -1.373456
0.421491 -0.146570 -1.383908
0.422937 -0.146609 -1.382862
0.486238 -0.145932 -1.373154
0.558897 -0.146623 -1.381637
0.596271 -0.145206 -1.372746
0.625425 -0.145529 -1.381411
0.770915 -0.146024 -1.380558
-0.636402 -0.145667 -1.358623
-0.603644 -0.146184 -1.361674
-0.573895 -0.145246 -1.360209
-0.559395 -0.145750 -1.358880
-0.360637 -0.145091 -1.359514
-0.328710 -0.145491 -1.358664
-0.299035 -0.146023 -1.365703
-0.098046 -0.120375 -1.131066
-0.071832 -0.120208 -1.124320
-0.062362 -0.120137 -1.122428
-0.036616 -0.119576 -1.115141
-0.010721 -0.119099 -1.109533
0.013672 -0.117360 -1.099715
0.128220 -0.147775 -1.383063
0.133232 -0.147846 -1.383995
0.149390 -0.146831 -1.372591
0.180572 -0.146259 -1.373120
0.286185 -0.147048 -1.380983
0.324340 -0.146746 -1.378315
0.387819 -0.146837 -1.377042
0.406172 -0.147380 -1.375528
0.459260 -0.146732 -1.376674
0.530889 -0.147718 -1.380161
0.533839 -0.146609 -1.376825
0.669686 -0.146772 -1.380811
0.700190 -0.146966 -1.377954
0.743506 -0.147560 -1.378611
-0.698678 -0.146345 -1.350473
-0.651650 -0.147225 -1.359215
-0.588657 -0.146286 -1.358004
-0.529280 -0.146669 -1.357519
-0.496349 -0.145987 -1.356135
-0.437615 -0.146438 -1.361655
-0.424397 -0.146942 -1.362440
-0.376502 -0.146357 -1.354516
-0.346500 -0.146571 -1.358266
-0.177949 -0.124169 -1.156076
-0.151181 -0.123528 -1.147567
-0.140728 -0.124040 -1.146172
-0.002126 -0.119451 -1.106271
0.022801 -0.118011 -1.098473
0.047627 -0.117299 -1.091835
0.224003 -0.148437 -1.371917
0.234828 -0.147638 -1.371553
0.250656 -0.148233 -1.379955
0.330392 -0.147632 -1.375558
0.360419 -0.147924 -1.376823
0.471907 -0.148522 -1.374856
0.496391 -0.147844 -1.372811
0.573107 -0.148691 -1.376776
0.575244 -0.149158 -1.381151
0.640559 -0.148823 -1.379921
0.642388 -0.148807 -1.377125
0.680197 -0.148286 -1.375579
0.711078 -0.148298 -1.373642
-0.762865 -0.148225 -1.360130
-0.674031 -0.148317 -1.361377
-0.621568 -0.147413 -1.356700
-0.485785 -0.148131 -1.355427
-0.451349 -0.146485 -1.351261
-0.438491 -0.147875 -1.352689
-0.409178 -0.148553 -1.360354
-0.394281 -0.147779 -1.360020
-0.315541 -0.147730 -1.357325
-0.286006 -0.147294 -1.358439
-0.253357 -0.146590 -1.352927
-0.114130 -0.123716 -1.135363
-0.087931 -0.122424 -1.129486
-0.077994 -0.123062 -1.128478
-0.026633 -0.121413 -1.115060
0.056989 -0.119124 -1.091100
0.160357 -0.148535 -1.369916
0.195032 -0.149032 -1.372471
0.300206 -0.149829 -1.376759
0.442354 -0.149457 -1.370045
0.517277 -0.149966 -1.373977
0.684438 -0.149592 -1.371401
0.720319 -0.149422 -1.371964
0.757071 -0.149875 -1.374159
-0.737855 -0.149004 -1.359697
-0.691305 -0.147534 -1.344839
-0.686053 -0.148473 -1.352008
-0.606159 -0.148462 -1.357560
-0.577411 -0.148150 -1.354273
-0.548272 -0.148490 -1.355815
-0.513800 -0.148053 -1.353934
-0.335400 -0.149087 -1.354084
-0.273032 -0.147906 -1.344579
-0.258236 -0.148344 -1.349033
-0.195447 -0.127444 -1.161853
-0.167898 -0.126262 -1.154679
-0.157252 -0.126986 -1.153304
-0.104020 -0.125181 -1.135553
0.033181 -0.120712 -1.097538
0.171095 -0.150285 -1.366802
0.203152 -0.150146 -1.369212
0.270058 -0.150258 -1.373274
0.277223 -0.150253 -1.373374
0.375630 -0.150135 -1.373609
0.379239 -0.150573 -1.368196
0.438940 -0.150325 -1.375958
0.482360 -0.149796 -1.369549
0.550983 -0.150414 -1.375743
0.554081 -0.150985 -1.374813
0.616898 -0.150790 -1.376425
0.658417 -0.151539 -1.376184
-0.672266 -0.150398 -1.354090
-0.501472 -0.149717 -1.350876
-0.469833 -0.149271 -1.351649
-0.272834 -0.149357 -1.351051
-0.184550 -0.129004 -1.159922
-0.130645 -0.127184 -1.143712
-0.120113 -0.126850 -1.141297
-0.051822 -0.123563 -1.119761
-0.042473 -0.123877 -1.119989
0.008621 -0.122500 -1.104257
0.017073 -0.122386 -1.102754
0.041950 -0.121593 -1.096448
0.141138 -0.151195 -1.369188
0.213753 -0.151799 -1.366926
0.248248 -0.151948 -1.369510
0.320750 -0.151299 -1.369782
0.347381 -0.151556 -1.371828
0.489000 -0.151509 -1.365333
0.590243 -0.151149 -1.365321
0.734717 -0.151810 -1.374829
-0.764015 -0.151775 -1.353391
-0.645197 -0.151604 -1.353829
-0.636269 -0.151063 -1.351632
-0.621985 -0.150758 -1.350543
-0.566094 -0.151419 -1.351853
-0.534454 -0.150900 -1.351723
-0.456724 -0.150746 -1.346353
-0.382407 -0.151341 -1.349733
-0.369555 -0.151810 -1.354092
-0.322400 -0.151556 -1.351198
-0.307422 -0.151435 -1.359153
-0.067900 -0.125494 -1.126750
-0.016157 -0.124131 -1.115276
-0.007233 -0.124245 -1.112433
0.067688 -0.121412 -1.090888
0.150164 -0.151736 -1.363860
0.182988 -0.152416 -1.365567
0.254933 -0.153026 -1.366417
0.315165 -0.152777 -1.373044
0.355011 -0.152666 -1.371043
0.421669 -0.153406 -1.377559
0.429688 -0.153273 -1.373312
0.461776 -0.153205 -1.368660
0.526236 -0.152425 -1.371471
0.594668 -0.152896 -1.371497
0.629252 -0.152557 -1.372783
0.633314 -0.153225 -1.370348
0.669079 -0.152376 -1.370999
-0.716345 -0.152407 -1.353189
-0.683883 -0.151364 -1.346863
-0.600705 -0.153140 -1.355458
-0.519115 -0.151901 -1.348161
-0.489334 -0.151842 -1.348731
-0.432326 -0.153130 -1.355134
-0.415795 -0.152706 -1.353653
-0.354049 -0.152855 -1.353553
-0.174074 -0.130721 -1.159296
-0.093874 -0.127639 -1.134810
-0.083881 -0.128135 -1.133643
-0.032019 -0.126597 -1.119628
0.052260 -0.123796 -1.095608
0.226283 -0.153509 -1.365622
0.290613 -0.153763 -1.370419
0.299844 -0.154564 -1.367085
0.411216 -0.154754 -1.369103
0.437205 -0.154339 -1.366334
0.540194 -0.153485 -1.369075
0.570205 -0.154173 -1.371065
0.671299 -0.153487 -1.364700
0.705177 -0.153944 -1.368507
0.707194 -0.154054 -1.365234
-0.753127 -0.153469 -1.352593
-0.745177 -0.154351 -1.360129
-0.671377 -0.153591 -1.348289
-0.662135 -0.153782 -1.355679
-0.612264 -0.153733 -1.349083
-0.583490 -0.152909 -1.349941
-0.554850 -0.153638 -1.349910
-0.443843 -0.152300 -1.344777
-0.403520 -0.154068 -1.356399
-0.372898 -0.153654 -1.349963
-0.311465 -0.154096 -1.352585
-0.163606 -0.132180 -1.158464
-0.147515 -0.131148 -1.152386
-0.136553 -0.130338 -1.150146
-0.022500 -0.127610 -1.119958
0.002633 -0.125902 -1.109358
0.027774 -0.124902 -1.101864
0.164784 -0.154436 -1.360909
0.195701 -0.154720 -1.363473
0.269619 -0.155291 -1.366300
0.336786 -0.154864 -1.365974
0.337596 -0.154105 -1.361624
0.372231 -0.155151 -1.368427
0.399956 -0.154701 -1.367312
0.474177 -0.154898 -1.366319
0.505586 -0.155126 -1.366053
0.511519 -0.154941 -1.365682
0.575644 -0.154381 -1.364977
-0.683489 -0.153911 -1.341345
-0.568942 -0.154947 -1.346026
-0.539373 -0.154405 -1.346466
-0.477258 -0.154564 -1.346147
-0.385307 -0.154057 -1.345000
-0.343482 -0.154982 -1.350059
-0.328365 -0.154818 -1.345439
-0.190586 -0.133048 -1.162393
-0.110092 -0.130696 -1.140983
-0.099890 -0.130978 -1.140019
-0.073741 -0.129659 -1.133507
-0.047858 -0.129284 -1.123677
0.036872 -0.126412 -1.101140
0.061232 -0.124999 -1.093825
0.239582 -0.155946 -1.364054
0.376411 -0.156443 -1.360970
0.481556 -0.155663 -1.361789
0.546345 -0.156166 -1.367972
0.616059 -0.155967 -1.363444
0.618537 -0.155989 -1.362315
0.648852 -0.156211 -1.369645
0.656760 -0.156201 -1.360139
0.686188 -0.155803 -1.362452
0.751343 -0.155486 -1.360425
-0.763973 -0.156008 -1.347986
-0.662431 -0.156565 -1.348654
-0.631230 -0.156258 -1.346732
-0.509061 -0.155059 -1.345514
-0.435757 -0.155314 -1.346944
-0.265837 -0.154787 -1.342704
-0.251202 -0.155726 -1.344430
-0.238831 -0.154650 -1.338279
-0.126446 -0.133120 -1.147558
0.012419 -0.128072 -1.107494
0.142899 -0.156229 -1.357256
0.173998 -0.156556 -1.358093
0.206923 -0.157515 -1.361303
0.281951 -0.157313 -1.364036
0.314297 -0.157994 -1.363919
0.450259 -0.156696 -1.361862
0.525261 -0.157843 -1.363056
0.561011 -0.158108 -1.365783
-0.755054 -0.157522 -1.348276
-0.711947 -0.156758 -1.342883
-0.554466 -0.155886 -1.342147
-0.495284 -0.156041 -1.342535
-0.450745 -0.156577 -1.339397
-0.420847 -0.156706 -1.346779
-0.359772 -0.156739 -1.349933
-0.299291 -0.157023 -1.351876
-0.297298 -0.157641 -1.354877
-0.284103 -0.156887 -1.342481
-0.180357 -0.135571 -1.163133
-0.153420 -0.134433 -1.157477
-0.116167 -0.133859 -1.146556
-0.003215 -0.130178 -1.114288
0.047165 -0.128378 -1.100280
0.156880 -0.158224 -1.356052
0.249485 -0.158074 -1.362396
0.324575 -0.158665 -1.360300
0.393115 -0.158743 -1.358161
0.432316 -0.159441 -1.364344
0.491911 -0.158049 -1.359830
0.591407 -0.158266 -1.358274
0.595481 -0.158257 -1.354065
0.664638 -0.159249 -1.367418
0.697491 -0.158514 -1.359272
-0.746417 -0.159331 -1.353258
-0.723508 -0.158223 -1.350700
-0.617721 -0.157226 -1.342666
-0.525997 -0.157178 -1.341579
-0.481942 -0.157758 -1.338728
-0.465261 -0.157246 -1.342606
-0.411538 -0.159128 -1.351245
-0.196403 -0.136782 -1.162861
-0.089691 -0.133803 -1.138474
-0.037531 -0.132067 -1.124758
-0.028340 -0.131878 -1.124139
-0.011522 -0.130936 -1.118335
0.022195 -0.129549 -1.106029
0.187384 -0.158686 -1.356328
0.228562 -0.158786 -1.357197
0.261777 -0.160101 -1.361573
0.366812 -0.159866 -1.357480
0.430072 -0.161264 -1.368879
0.466248 -0.160176 -1.359982
0.538178 -0.160182 -1.360885
0.566489 -0.159819 -1.360686
0.630897 -0.159712 -1.361153
0.740878 -0.159961 -1.364520
-0.746212 -0.159531 -1.347906
-0.653516 -0.159901 -1.346484
-0.588080 -0.158865 -1.335115
-0.544060 -0.158997 -1.342292
-0.513585 -0.159029 -1.339179
-0.440167 -0.158914 -1.338599
-0.409750 -0.159200 -1.344953
-0.334262 -0.159393 -1.340805
-0.317988 -0.158972 -1.344486
-0.256926 -0.159503 -1.342082
-0.143158 -0.136910 -1.155762
-0.079517 -0.134983 -1.137627
0.031790 -0.131082 -1.105385
0.056182 -0.129698 -1.099189
0.166169 -0.160236 -1.353258
0.197702 -0.160382 -1.354787
0.222223 -0.160480 -1.360131
0.274187 -0.161424 -1.359410
0.296767 -0.161315 -1.360454
0.303674 -0.161071 -1.357332
0.331386 -0.160218 -1.355506
0.400006 -0.160447 -1.359140
0.410885 -0.161439 -1.360007
0.472289 -0.160533 -1.357477
0.506014 -0.160972 -1.358971
0.676202 -0.160630 -1.356663
0.709383 -0.160367 -1.356814
-0.715023 -0.160331 -1.344011
-0.682751 -0.160192 -1.341560
-0.573979 -0.159857 -1.340402
-0.528651 -0.159160 -1.336594
-0.499520 -0.160418 -1.337510
-0.393804 -0.159700 -1.340506
-0.380401 -0.159682 -1.341237
-0.351257 -0.161057 -1.345927
-0.305319 -0.160957 -1.344259
-0.273124 -0.159094 -1.335791
-0.170534 -0.138519 -1.163467
-0.159560 -0.138620 -1.162376
-0.132594 -0.137473 -1.153170
-0.105934 -0.136724 -1.145913
-0.095745 -0.136808 -1.144284
-0.043634 -0.135381 -1.130170
0.135391 -0.160456 -1.349438
0.344742 -0.161740 -1.350800
0.371105 -0.161037 -1.353387
0.446603 -0.161717 -1.357560
0.517643 -0.161584 -1.356109
0.552096 -0.162507 -1.359389
0.580175 -0.160969 -1.353403
0.612747 -0.161578 -1.351797
0.652180 -0.162676 -1.361495
-0.696631 -0.161995 -1.339783
-0.667717 -0.161068 -1.340644
-0.642880 -0.161981 -1.341788
-0.609702 -0.161431 -1.339315
-0.543617 -0.160271 -1.330552
-0.471646 -0.160326 -1.336209
-0.427243 -0.161204 -1.338089
-0.187013 -0.140646 -1.165253
-0.069174 -0.137093 -1.139845
-0.017161 -0.135332 -1.123654
-0.008882 -0.134541 -1.120260
0.007827 -0.133642 -1.111850
0.016290 -0.133634 -1.110141
0.041689 -0.133050 -1.104732
0.147422 -0.162683 -1.350184
0.244376 -0.163708 -1.356182
0.285581 -0.162459 -1.355072
0.386841 -0.163089 -1.352142
0.421781 -0.164031 -1.361989
0.451526 -0.162736 -1.352162
0.484367 -0.163033 -1.355468
0.617469 -0.162990 -1.353561
0.687833 -0.162328 -1.353891
0.721038 -0.162786 -1.350449
0.748368 -0.161566 -1.346148
-0.765257 -0.163134 -1.343876
-0.731595 -0.163404 -1.345140
-0.623409 -0.162474 -1.337595
-0.562402 -0.161995 -1.335330
-0.516038 -0.161977 -1.331544
-0.487605 -0.161923 -1.333547
-0.323297 -0.162134 -1.337880
-0.292205 -0.162700 -1.338826
-0.247455 -0.162041 -1.333065
-0.176472 -0.141756 -1.167722
-0.122346 -0.139869 -1.152133
0.179256 -0.164428 -1.350577
0.212669 -0.164459 -1.355709
0.256297 -0.164598 -1.356526
0.317179 -0.164607 -1.354943
0.325653 -0.164228 -1.350577
0.494585 -0.164569 -1.354083
0.529038 -0.163921 -1.352674
0.562271 -0.164685 -1.355403
0.583619 -0.162708 -1.347244
0.657349 -0.164308 -1.356395
-0.714237 -0.164598 -1.341168
-0.688318 -0.163690 -1.338364
-0.657833 -0.163581 -1.339841
-0.603655 -0.163008 -1.335228
-0.579259 -0.163087 -1.334110
-0.469901 -0.162796 -1.329334
-0.458521 -0.162707 -1.334461
-0.445823 -0.163570 -1.331994
-0.414501 -0.163729 -1.336346
-0.354574 -0.163562 -1.338983
-0.280692 -0.162802 -1.331932
-0.149372 -0.141466 -1.161032
-0.138750 -0.141980 -1.158737
-0.112004 -0.140590 -1.151619
-0.085445 -0.140099 -1.142912
-0.075543 -0.139796 -1.142629
-0.033305 -0.137988 -1.128757
-0.023504 -0.138385 -1.127923
0.052011 -0.135252 -1.103769
0.159978 -0.165265 -1.348306
0.190259 -0.164410 -1.347735
0.222323 -0.164737 -1.352726
0.295993 -0.165667 -1.351275
0.364115 -0.164580 -1.346346
0.537867 -0.165519 -1.350831
0.596134 -0.164767 -1.345937
0.638998 -0.165773 -1.351886
0.665716 -0.165542 -1.352394
0.697835 -0.165066 -1.349164
-0.750569 -0.165245 -1.342153
-0.734522 -0.164869 -1.339181
-0.702357 -0.165159 -1.337554
-0.577744 -0.163647 -1.327507
-0.516021 -0.163108 -1.326094
-0.505720 -0.163727 -1.331382
-0.431090 -0.164345 -1.330485
-0.402277 -0.164441 -1.333557
-0.384915 -0.164302 -1.335793
-0.370700 -0.164288 -1.330838
-0.310640 -0.164969 -1.338172
-0.263785 -0.164350 -1.336455
-0.192544 -0.143468 -1.166471
-0.048865 -0.140449 -1.136765
0.002085 -0.137839 -1.117032
0.010270 -0.137253 -1.115009
0.027027 -0.136290 -1.109555
0.035802 -0.137134 -1.109276
0.060472 -0.135751 -1.104530
0.200370 -0.166720 -1.347828
0.234190 -0.166738 -1.349098
0.275778 -0.166356 -1.349488
0.361253 -0.166597 -1.348800
0.439605 -0.167239 -1.355537
0.440459 -0.165839 -1.346662
0.464597 -0.165938 -1.350121
0.506386 -0.166652 -1.351063
0.569969 -0.165211 -1.341312
0.704179 -0.165510 -1.344527
-0.673333 -0.165625 -1.335737
-0.653888 -0.165906 -1.332061
-0.645361 -0.166026 -1.337785
-0.623644 -0.165746 -1.333836
-0.568261 -0.165772 -1.329811
-0.460840 -0.164876 -1.328282
-0.342414 -0.165705 -1.335611
-0.328439 -0.165999 -1.331013
-0.297436 -0.165336 -1.334748
-0.267918 -0.164795 -1.330826
-0.166420 -0.144765 -1.167501
-0.155477 -0.144831 -1.165774
-0.101745 -0.143262 -1.149922
0.139090 -0.167109 -1.343143
0.170519 -0.166940 -1.344525
0.305065 -0.168051 -1.350933
0.399546 -0.167128 -1.350477
0.445813 -0.166709 -1.341846
0.475196 -0.167875 -1.350000
0.517104 -0.167603 -1.346433
0.575907 -0.167652 -1.348349
0.608049 -0.167198 -1.344814
0.642253 -0.167828 -1.353091
0.679841 -0.167400 -1.350766
0.737457 -0.165241 -1.336666
-0.721029 -0.167736 -1.335251
-0.533339 -0.164719 -1.318525
-0.491559 -0.166221 -1.329539
-0.390596 -0.166085 -1.330703
-0.358883 -0.166257 -1.328374
-0.270935 -0.165543 -1.326940
-0.128552 -0.144784 -1.157065
-0.039169 -0.141548 -1.133251
-0.013327 -0.141188 -1.125636
0.246893 -0.169476 -1.349636
0.348366 -0.168124 -1.345467
0.415584 -0.169147 -1.349356
0.683811 -0.167778 -1.346236
-0.695079 -0.169224 -1.336525
-0.674897 -0.168796 -1.332691
-0.604763 -0.168456 -1.332078
-0.552274 -0.166707 -1.323785
-0.478148 -0.166923 -1.323893
-0.434404 -0.167295 -1.323699
-0.420001 -0.167276 -1.329258
-0.346410 -0.168331 -1.329358
-0.316630 -0.168398 -1.330002
-0.254679 -0.167228 -1.329107
-0.183025 -0.147433 -1.171140
-0.118201 -0.146301 -1.156481
-0.091495 -0.144348 -1.147749
-0.064863 -0.144058 -1.143768
-0.055051 -0.144131 -1.140813
-0.004027 -0.141475 -1.121887
0.021399 -0.140622 -1.113778
0.046561 -0.139686 -1.108457
0.054846 -0.139784 -1.107687
0.151905 -0.169682 -1.344288
0.222386 -0.169231 -1.341194
0.273341 -0.170393 -1.354664
0.288487 -0.169240 -1.344390
0.343999 -0.169661 -1.346681
0.390534 -0.169460 -1.342476
0.490630 -0.170674 -1.349531
0.521480 -0.169141 -1.342462
0.558538 -0.169818 -1.343213
0.620724 -0.168969 -1.344243
0.655163 -0.170653 -1.349921
0.718606 -0.168528 -1.335788
0.755313 -0.169291 -1.338954
-0.756024 -0.169545 -1.335917
-0.662170 -0.169305 -1.326417
-0.646835 -0.168708 -1.329876
-0.615377 -0.168713 -1.330893
-0.511721 -0.168005 -1.323483
-0.450377 -0.168324 -1.326724
-0.377837 -0.168985 -1.327319
-0.287542 -0.169093 -1.328549
-0.172561 -0.148574 -1.172269
-0.145260 -0.147646 -1.163722
-0.081285 -0.146109 -1.146165
-0.029094 -0.143629 -1.132033
0.030744 -0.141820 -1.113258
0.129179 -0.169897 -1.335717
0.160612 -0.170085 -1.340655
0.183451 -0.170020 -1.340809
0.190775 -0.170046 -1.339103
0.322418 -0.170561 -1.347224
0.361489 -0.171165 -1.342797
0.384942 -0.170607 -1.345899
0.499224 -0.171534 -1.346238
0.557589 -0.170867 -1.348504
0.587059 -0.169676 -1.339015
0.687021 -0.169956 -1.340317
-0.741293 -0.171018 -1.332398
-0.630844 -0.170307 -1.326866
-0.605162 -0.170332 -1.327950
-0.571120 -0.169190 -1.324607
-0.554409 -0.169039 -1.319280
-0.498054 -0.169432 -1.324461
-0.465900 -0.169038 -1.319899
-0.407494 -0.170393 -1.326986
-0.395402 -0.170231 -1.324685
-0.243928 -0.169831 -1.325959
-0.134665 -0.148369 -1.161813
-0.107875 -0.148542 -1.155356
-0.019170 -0.144986 -1.130533
0.005892 -0.143902 -1.119416
0.220344 -0.173017 -1.346795
0.261573 -0.172673 -1.348879
0.266679 -0.172416 -1.343935
0.296765 -0.171642 -1.343884
0.327440 -0.171118 -1.341748
0.368118 -0.171711 -1.339242
0.378736 -0.171441 -1.334817
0.432409 -0.171341 -1.341141
0.465297 -0.171773 -1.341719
0.506749 -0.171977 -1.340794
0.566550 -0.171713 -1.337196
0.599847 -0.171246 -1.338447
0.637859 -0.172196 -1.344307
0.674363 -0.172455 -1.347551
0.728900 -0.169822 -1.328612
-0.755807 -0.172358 -1.329414
-0.697599 -0.171541 -1.329426
-0.586411 -0.171188 -1.325403
-0.364560 -0.170333 -1.323155
-0.334768 -0.171188 -1.325391
-0.290606 -0.170350 -1.322619
-0.261008 -0.171012 -1.325180
-0.162082 -0.150677 -1.170833
-0.097558 -0.148622 -1.153205
-0.071158 -0.147431 -1.145873
-0.044687 -0.146875 -1.137394
0.209669 -0.171867 -1.336563
0.244480 -0.173480 -1.340831
0.314230 -0.172592 -1.338739
0.339741 -0.173425 -1.340199
0.407501 -0.171942 -1.335204
0.441949 -0.172264 -1.335524
0.513526 -0.172624 -1.335462
0.541584 -0.172519 -1.339249
0.646312 -0.172850 -1.344491
0.679929 -0.173737 -1.343157
0.739000 -0.172334 -1.333624
-0.725875 -0.172626 -1.328602
-0.714562 -0.172838 -1.332571
-0.650024 -0.172140 -1.321607
-0.542030 -0.171291 -1.314353
-0.513204 -0.170799 -1.317319
-0.455758 -0.171037 -1.319325
-0.426642 -0.171359 -1.322232
-0.383026 -0.172035 -1.324838
-0.321916 -0.172169 -1.323549
-0.189430 -0.152142 -1.172838
-0.151549 -0.151885 -1.168846
-0.124399 -0.151171 -1.161018
-0.060997 -0.148520 -1.144383
-0.035104 -0.147971 -1.135590
0.016008 -0.145158 -1.117839
0.041698 -0.144833 -1.112619
0.066953 -0.143753 -1.108095
0.174143 -0.173043 -1.336223
0.181610 -0.172888 -1.332276
0.238132 -0.174084 -1.340528
0.280126 -0.173709 -1.338515
0.354076 -0.173947 -1.338663
0.404504 -0.173533 -1.339448
0.481107 -0.174696 -1.343442
0.544717 -0.173481 -1.335079
0.575922 -0.173559 -1.333882
0.612709 -0.174124 -1.336715
0.704235 -0.171969 -1.325298
0.709252 -0.172980 -1.332923
-0.713331 -0.174119 -1.327038
-0.625471 -0.173849 -1.324285
-0.575650 -0.173168 -1.320352
-0.488724 -0.173268 -1.321488
-0.469399 -0.171783 -1.314756
-0.412041 -0.173164 -1.320021
-0.353345 -0.172983 -1.321354
-0.307844 -0.173627 -1.327887
-0.179409 -0.154483 -1.176549
-0.113976 -0.152207 -1.160013
-0.009251 -0.147165 -1.127575
-0.000030 -0.147265 -1.124832
0.025527 -0.146736 -1.117220
0.050246 -0.145082 -1.111671
0.143658 -0.174790 -1.338680
0.208629 -0.175040 -1.340551
0.286176 -0.174642 -1.334619
0.359984 -0.175085 -1.334400
0.453942 -0.174023 -1.332730
0.488090 -0.175135 -1.341975
0.557260 -0.174782 -1.331605
0.622890 -0.174739 -1.336216
0.686265 -0.174701 -1.337365
0.752593 -0.174624 -1.334638
-0.745782 -0.175454 -1.326758
-0.725016 -0.174626 -1.322337
-0.636171 -0.173710 -1.319704
-0.588386 -0.174153 -1.320748
-0.502817 -0.173894 -1.316901
-0.443531 -0.174449 -1.317034
-0.340114 -0.174280 -1.319091
-0.310216 -0.174250 -1.322737
-0.249914 -0.173814 -1.320262
-0.168289 -0.154979 -1.175668
-0.141024 -0.153988 -1.167026
-0.087226 -0.151332 -1.151045
-0.077128 -0.151912 -1.149524
-0.050914 -0.150454 -1.140717
-0.015796 -0.149657 -1.133028
0.060303 -0.146628 -1.112867
0.155037 -0.176042 -1.337330
0.225349 -0.175231 -1.332901
0.257818 -0.176006 -1.337110
0.422919 -0.176010 -1.330487
0.462957 -0.176535 -1.334172
0.667595 -0.177268 -1.340625
-0.700152 -0.176804 -1.324990
-0.671587 -0.175340 -1.322791
-0.654780 -0.175121 -1.316414
-0.614259 -0.176409 -1.322027
-0.561194 -0.174614 -1.315494
-0.429847 -0.174731 -1.315817
-0.371014 -0.175478 -1.319065
-0.297391 -0.175668 -1.318755
-0.280910 -0.174731 -1.318660
-0.130531 -0.154973 -1.165845
-0.041078 -0.151861 -1.138581
-0.024529 -0.150821 -1.135166
0.035663 -0.148425 -1.116912
0.133563 -0.176588 -1.330197
0.165493 -0.176520 -1.331211
0.196932 -0.177003 -1.332086
0.332089 -0.177627 -1.334221
0.500718 -0.177712 -1.336780
0.529648 -0.176149 -1.330867
0.529551 -0.175468 -1.326136
0.592502 -0.176872 -1.333484
0.601424 -0.177309 -1.331508
0.634938 -0.177453 -1.336252
0.726839 -0.176082 -1.325589
-0.681071 -0.176230 -1.319602
-0.625521 -0.176313 -1.318030
-0.492258 -0.176162 -1.317530
-0.462670 -0.175656 -1.311698
-0.418143 -0.176578 -1.314590
-0.400967 -0.176673 -1.317912
-0.326822 -0.176700 -1.317034
-0.103644 -0.155409 -1.157928
-0.093353 -0.155035 -1.155385
0.010742 -0.150558 -1.123096
0.019373 -0.150142 -1.121753
0.237016 -0.178532 -1.332135
0.266486 -0.177838 -1.332099
0.341357 -0.178067 -1.332722
0.373640 -0.178471 -1.330224
0.401783 -0.178133 -1.333154
0.433807 -0.177617 -1.330194
0.505209 -0.177533 -1.330577
0.566804 -0.177122 -1.328970
0.696398 -0.176983 -1.321699
0.702089 -0.177402 -1.329537
-0.717317 -0.178531 -1.320065
-0.635492 -0.176703 -1.312031
-0.549542 -0.176434 -1.310505
-0.539575 -0.176826 -1.312257
-0.503464 -0.176412 -1.309097
-0.449106 -0.176749 -1.309925
-0.388661 -0.177010 -1.316095
-0.358216 -0.176905 -1.314541
-0.285920 -0.177298 -1.314189
-0.185909 -0.159432 -1.181118
-0.174769 -0.159731 -1.180686
-0.158209 -0.158001 -1.173939
-0.147184 -0.158126 -1.171933
-0.120150 -0.157273 -1.164635
-0.066627 -0.154438 -1.148180
-0.057039 -0.154200 -1.144573
0.045005 -0.149924 -1.115844
0.154993 -0.179118 -1.329782
0.176922 -0.178894 -1.326019
0.207356 -0.178793 -1.330583
0.278991 -0.179150 -1.328758
0.412327 -0.178880 -1.327008
0.451384 -0.178870 -1.325321
0.747891 -0.179318 -1.329828
0.753943 -0.179804 -1.331276
-0.751038 -0.179263 -1.320260
-0.609713 -0.178890 -1.316461
-0.595814 -0.179139 -1.314206
-0.537125 -0.178379 -1.308877
-0.462916 -0.177936 -1.305298
-0.347102 -0.178810 -1.312774
-0.317135 -0.178471 -1.316572
-0.272477 -0.177839 -1.309245
-0.256826 -0.178846 -1.315344
-0.030713 -0.154848 -1.138758
-0.004498 -0.153977 -1.130196
0.004396 -0.153545 -1.127862
0.055293 -0.151702 -1.116125
0.187059 -0.179785 -1.324578
0.218072 -0.180651 -1.327225
0.251559 -0.180589 -1.329209
0.257532 -0.179989 -1.325216
0.446544 -0.179584 -1.326441
0.484378 -0.181338 -1.335184
0.487440 -0.180067 -1.331374
0.545838 -0.179396 -1.324596
0.585650 -0.180391 -1.328125
0.613327 -0.180445 -1.328873
0.622800 -0.180717 -1.327579
0.686994 -0.181216 -1.335693
0.712814 -0.179142 -1.319041
-0.704728 -0.180738 -1.318598
-0.673858 -0.179628 -1.316443
-0.630437 -0.179639 -1.310251
-0.482601 -0.179992 -1.311606
-0.434558 -0.178976 -1.308644
-0.406340 -0.179103 -1.311869
-0.405187 -0.178986 -1.311830
-0.361484 -0.179593 -1.308386
-0.332510 -0.179503 -1.311294
-0.304352 -0.180002 -1.312995
-0.243316 -0.178954 -1.312650
-0.109772 -0.158594 -1.162483
-0.082978 -0.158104 -1.153516
0.030394 -0.153549 -1.121132
0.124999 -0.180286 -1.319782
0.150020 -0.182674 -1.334360
0.228816 -0.181155 -1.325312
0.290382 -0.180860 -1.323649
0.323190 -0.182037 -1.330267
0.364067 -0.181161 -1.326607
0.521768 -0.180790 -1.324537
0.522543 -0.180419 -1.317728
0.557512 -0.180490 -1.324048
0.593289 -0.181464 -1.326758
-0.737092 -0.181343 -1.313617
-0.690036 -0.181427 -1.315561
-0.661856 -0.180762 -1.313777
-0.638693 -0.179891 -1.306919
-0.613391 -0.180684 -1.307953
-0.569666 -0.180241 -1.311833
-0.555233 -0.180706 -1.307748
-0.451377 -0.179969 -1.302535
-0.192219 -0.163352 -1.186421
-0.164573 -0.162478 -1.178877
-0.137055 -0.161439 -1.170724
-0.072866 -0.158373 -1.152288
-0.046708 -0.156967 -1.141482
0.039678 -0.154218 -1.119914
0.199788 -0.182818 -1.325532
0.358445 -0.182610 -1.330075
0.398514 -0.183549 -1.329210
0.424936 -0.181956 -1.323252
0.432316 -0.182432 -1.321802
0.500825 -0.182926 -1.325780
0.690417 -0.182040 -1.320530
0.696888 -0.183043 -1.329215
0.726067 -0.181451 -1.322138
-0.730105 -0.181400 -1.306288
-0.677764 -0.182048 -1.312237
-0.541346 -0.181562 -1.304208
-0.528188 -0.181646 -1.306637
-0.498765 -0.181497 -1.310825
-0.486886 -0.181876 -1.308047
-0.437983 -0.180719 -1.300409
-0.395229 -0.182114 -1.309671
-0.291783 -0.181555 -1.310690
-0.153716 -0.163621 -1.177085
-0.126401 -0.162420 -1.169706
-0.099418 -0.160426 -1.160060
-0.036714 -0.158821 -1.141695
-0.020111 -0.157659 -1.138342
-0.010683 -0.157356 -1.136005
0.066537 -0.155217 -1.119608
0.169531 -0.183494 -1.323153
0.175896 -0.182807 -1.320296
0.333497 -0.183352 -1.325793
0.376636 -0.184201 -1.325914
0.469700 -0.183726 -1.326466
0.533468 -0.182089 -1.315326
0.602837 -0.183313 -1.322888
0.641142 -0.184482 -1.327816
0.669472 -0.183609 -1.327883
-0.724667 -0.183650 -1.312015
-0.706180 -0.183221 -1.312071
-0.510928 -0.181855 -1.301631
-0.467257 -0.181540 -1.301567
-0.410993 -0.182209 -1.306388
-0.381940 -0.182848 -1.304968
-0.324466 -0.182934 -1.311543
-0.279902 -0.183019 -1.305910
-0.248709 -0.182324 -1.306973
-0.089104 -0.161940 -1.158211
-0.062407 -0.160897 -1.149811
-0.052920 -0.160466 -1.145677
0.015215 -0.156885 -1.126303
0.024317 -0.156953 -1.125537
0.049913 -0.156793 -1.119813
0.140786 -0.185451 -1.326615
0.209258 -0.184625 -1.324494
0.250256 -0.184559 -1.318588
0.272779 -0.184378 -1.322958
0.347031 -0.184952 -1.323999
0.351214 -0.184683 -1.321723
0.444225 -0.184175 -1.319583
